# This PCD file was generated using the MATLAB® pcwrite function
# from Computer Vision System Toolbox®.
# .PCD v.7 - Point Cloud Data file format
VERSION .7
FIELDS x y z
SIZE 4 4 4
TYPE F F F
COUNT 1 1 1
WIDTH 1645
HEIGHT 1
VIEWPOINT 0 0 0 1 0 0 0
POINTS 1645
DATA ascii
-0.031752 -0.121176 0.680400
-0.031836 -0.120197 0.682200
-0.031836 -0.118898 0.682200
-0.031920 -0.117909 0.684000
-0.032046 -0.117066 0.686700
-0.032214 -0.116365 0.690300
-0.032256 -0.115200 0.691200
-0.032340 -0.114180 0.693000
-0.032340 -0.112860 0.693000
-0.032340 -0.111540 0.693000
-0.032340 -0.110220 0.693000
-0.032424 -0.109183 0.694800
-0.032424 -0.107859 0.694800
-0.032424 -0.106536 0.694800
-0.032424 -0.105213 0.694800
-0.032466 -0.104024 0.695700
-0.032550 -0.102964 0.697500
-0.032550 -0.101636 0.697500
-0.032550 -0.100307 0.697500
-0.032550 -0.098979 0.697500
-0.032550 -0.097650 0.697500
-0.032634 -0.096570 0.699300
-0.032718 -0.095483 0.701100
-0.032718 -0.094148 0.701100
-0.032718 -0.092812 0.701100
-0.032760 -0.091594 0.702000
-0.032760 -0.090257 0.702000
-0.032760 -0.088920 0.702000
-0.032928 -0.088032 0.705600
-0.032928 -0.086688 0.705600
-0.033012 -0.085562 0.707400
-0.032928 -0.084000 0.705600
-0.033012 -0.082867 0.707400
-0.033012 -0.081519 0.707400
-0.033012 -0.080172 0.707400
-0.033096 -0.079025 0.709200
-0.033096 -0.077674 0.709200
-0.033138 -0.076420 0.710100
-0.033222 -0.075258 0.711900
-0.033222 -0.073902 0.711900
-0.033222 -0.072546 0.711900
-0.033306 -0.071370 0.713700
-0.033390 -0.070187 0.715500
-0.033474 -0.068997 0.717300
-0.033516 -0.067716 0.718200
-0.033600 -0.066514 0.720000
-0.033600 -0.065143 0.720000
-0.033684 -0.063931 0.721800
-0.033684 -0.062556 0.721800
-0.033768 -0.061334 0.723600
-0.033768 -0.059955 0.723600
-0.033768 -0.058577 0.723600
-0.033852 -0.057341 0.725400
-0.033852 -0.055959 0.725400
-0.033936 -0.054713 0.727200
-0.033936 -0.053328 0.727200
-0.034104 -0.052200 0.730800
-0.034188 -0.050933 0.732600
-0.034188 -0.049538 0.732600
-0.034230 -0.048201 0.733500
-0.034230 -0.046804 0.733500
-0.034230 -0.045407 0.733500
-0.034230 -0.044010 0.733500
-0.034230 -0.042613 0.733500
-0.034230 -0.041216 0.733500
-0.034314 -0.039916 0.735300
-0.034398 -0.038610 0.737100
-0.034482 -0.037297 0.738900
-0.034482 -0.035889 0.738900
-0.034566 -0.034566 0.740700
-0.034650 -0.033236 0.742500
-0.034650 -0.031821 0.742500
-0.034734 -0.030481 0.744300
-0.034734 -0.029063 0.744300
-0.034818 -0.027712 0.746100
-0.034902 -0.026355 0.747900
-0.034902 -0.024930 0.747900
-0.034902 -0.023505 0.747900
-0.034986 -0.022134 0.749700
-0.035070 -0.020756 0.751500
-0.035154 -0.019371 0.753300
-0.030456 -0.233928 0.680400
-0.030456 -0.232632 0.680400
-0.030456 -0.231336 0.680400
-0.030456 -0.230040 0.680400
-0.030537 -0.229349 0.682200
-0.030537 -0.228050 0.682200
-0.030537 -0.226750 0.682200
-0.030617 -0.226046 0.684000
-0.030657 -0.225039 0.684900
-0.030657 -0.223734 0.684900
-0.030657 -0.222429 0.684900
-0.030657 -0.221125 0.684900
-0.030657 -0.219820 0.684900
-0.030657 -0.218516 0.684900
-0.030738 -0.217782 0.686700
-0.030657 -0.215907 0.684900
-0.030657 -0.214602 0.684900
-0.030657 -0.213297 0.684900
-0.030657 -0.211993 0.684900
-0.030657 -0.210688 0.684900
-0.030617 -0.209109 0.684000
-0.030456 -0.206712 0.680400
-0.030416 -0.205144 0.679500
-0.030335 -0.203310 0.677700
-0.030295 -0.201751 0.676800
-0.030295 -0.200462 0.676800
-0.030214 -0.198643 0.675000
-0.030214 -0.197357 0.675000
-0.030134 -0.195549 0.673200
-0.030093 -0.194007 0.672300
-0.030013 -0.192210 0.670500
-0.030013 -0.190933 0.670500
-0.029932 -0.189147 0.668700
-0.029932 -0.187873 0.668700
-0.029932 -0.186599 0.668700
-0.029811 -0.184577 0.666000
-0.029811 -0.183309 0.666000
-0.029771 -0.181794 0.665100
-0.029771 -0.180527 0.665100
-0.029691 -0.178775 0.663300
-0.029691 -0.177512 0.663300
-0.029691 -0.176248 0.663300
-0.029691 -0.174985 0.663300
-0.029650 -0.173486 0.662400
-0.029650 -0.172224 0.662400
-0.029570 -0.170498 0.660600
-0.029570 -0.169239 0.660600
-0.029570 -0.167981 0.660600
-0.029570 -0.166723 0.660600
-0.029570 -0.165465 0.660600
-0.029570 -0.164206 0.660600
-0.029650 -0.163392 0.662400
-0.029691 -0.162351 0.663300
-0.029691 -0.161087 0.663300
-0.029691 -0.159824 0.663300
-0.029691 -0.158560 0.663300
-0.029691 -0.157297 0.663300
-0.029691 -0.156033 0.663300
-0.029771 -0.155190 0.665100
-0.029771 -0.153923 0.665100
-0.029771 -0.152656 0.665100
-0.029811 -0.151594 0.666000
-0.029892 -0.150732 0.667800
-0.029932 -0.149661 0.668700
-0.029932 -0.148388 0.668700
-0.030013 -0.147510 0.670500
-0.030013 -0.146233 0.670500
-0.030013 -0.144956 0.670500
-0.030013 -0.143679 0.670500
-0.030093 -0.142784 0.672300
-0.030093 -0.141503 0.672300
-0.030134 -0.140410 0.673200
-0.030214 -0.139500 0.675000
-0.030214 -0.138214 0.675000
-0.030214 -0.136929 0.675000
-0.030295 -0.136005 0.676800
-0.030335 -0.134895 0.677700
-0.030416 -0.133959 0.679500
-0.030416 -0.132664 0.679500
-0.030456 -0.131544 0.680400
-0.030456 -0.130248 0.680400
-0.030456 -0.128952 0.680400
-0.030537 -0.127994 0.682200
-0.030456 -0.126360 0.680400
-0.030456 -0.125064 0.680400
-0.030537 -0.124095 0.682200
-0.030537 -0.122796 0.682200
-0.030537 -0.121497 0.682200
-0.030537 -0.120197 0.682200
-0.030537 -0.118898 0.682200
-0.030657 -0.118064 0.684900
-0.030738 -0.117066 0.686700
-0.030899 -0.116365 0.690300
-0.030939 -0.115200 0.691200
-0.031020 -0.114180 0.693000
-0.031020 -0.112860 0.693000
-0.031020 -0.111540 0.693000
-0.031020 -0.110220 0.693000
-0.031101 -0.109183 0.694800
-0.031101 -0.107859 0.694800
-0.031101 -0.106536 0.694800
-0.031141 -0.105349 0.695700
-0.031141 -0.104024 0.695700
-0.031221 -0.102964 0.697500
-0.031221 -0.101636 0.697500
-0.031221 -0.100307 0.697500
-0.031221 -0.098979 0.697500
-0.031221 -0.097650 0.697500
-0.031302 -0.096570 0.699300
-0.031383 -0.095483 0.701100
-0.031383 -0.094148 0.701100
-0.031423 -0.092931 0.702000
-0.031503 -0.091829 0.703800
-0.031503 -0.090489 0.703800
-0.031584 -0.089376 0.705600
-0.031665 -0.088257 0.707400
-0.031665 -0.086909 0.707400
-0.031745 -0.085779 0.709200
-0.031665 -0.084214 0.707400
-0.031665 -0.082867 0.707400
-0.031745 -0.081727 0.709200
-0.031745 -0.080376 0.709200
-0.031785 -0.079125 0.710100
-0.031785 -0.077773 0.710100
-0.031866 -0.076614 0.711900
-0.031947 -0.075448 0.713700
-0.031947 -0.074089 0.713700
-0.031947 -0.072729 0.713700
-0.032027 -0.071550 0.715500
-0.032108 -0.070364 0.717300
-0.032108 -0.068997 0.717300
-0.032229 -0.067886 0.720000
-0.032309 -0.066681 0.721800
-0.032309 -0.065306 0.721800
-0.032390 -0.064090 0.723600
-0.032390 -0.062712 0.723600
-0.032470 -0.061486 0.725400
-0.032470 -0.060105 0.725400
-0.032470 -0.058723 0.725400
-0.032470 -0.057341 0.725400
-0.032470 -0.055959 0.725400
-0.032551 -0.054713 0.727200
-0.032631 -0.053460 0.729000
-0.032712 -0.052200 0.730800
-0.032793 -0.050933 0.732600
-0.032833 -0.049599 0.733500
-0.032833 -0.048201 0.733500
-0.032833 -0.046804 0.733500
-0.032913 -0.045519 0.735300
-0.032913 -0.044118 0.735300
-0.032913 -0.042717 0.735300
-0.033075 -0.041519 0.738900
-0.032994 -0.040014 0.737100
-0.033075 -0.038704 0.738900
-0.033075 -0.037297 0.738900
-0.033155 -0.035977 0.740700
-0.033155 -0.034566 0.740700
-0.033236 -0.033236 0.742500
-0.033316 -0.031899 0.744300
-0.033316 -0.030481 0.744300
-0.033397 -0.029133 0.746100
-0.033397 -0.027712 0.746100
-0.033477 -0.026355 0.747900
-0.033477 -0.024930 0.747900
-0.033558 -0.023562 0.749700
-0.033639 -0.022187 0.751500
-0.033639 -0.020756 0.751500
-0.033719 -0.019371 0.753300
-0.029237 -0.234547 0.682200
-0.029237 -0.233247 0.682200
-0.029237 -0.231948 0.682200
-0.029237 -0.230649 0.682200
-0.029237 -0.229349 0.682200
-0.029237 -0.228050 0.682200
-0.029314 -0.227349 0.684000
-0.029314 -0.226046 0.684000
-0.029430 -0.225630 0.686700
-0.029430 -0.224322 0.686700
-0.029430 -0.223014 0.686700
-0.029430 -0.221706 0.686700
-0.029430 -0.220398 0.686700
-0.029430 -0.219090 0.686700
-0.029430 -0.217782 0.686700
-0.029430 -0.216474 0.686700
-0.029430 -0.215166 0.686700
-0.029353 -0.213297 0.684900
-0.029353 -0.211993 0.684900
-0.029353 -0.210688 0.684900
-0.029314 -0.209109 0.684000
-0.029160 -0.206712 0.680400
-0.029121 -0.205144 0.679500
-0.029044 -0.203310 0.677700
-0.029044 -0.202019 0.677700
-0.029006 -0.200462 0.676800
-0.029006 -0.199173 0.676800
-0.028929 -0.197357 0.675000
-0.028851 -0.195549 0.673200
-0.028813 -0.194007 0.672300
-0.028736 -0.192210 0.670500
-0.028736 -0.190933 0.670500
-0.028659 -0.189147 0.668700
-0.028659 -0.187873 0.668700
-0.028659 -0.186599 0.668700
-0.028620 -0.185076 0.667800
-0.028543 -0.183309 0.666000
-0.028543 -0.182040 0.666000
-0.028504 -0.180527 0.665100
-0.028504 -0.179260 0.665100
-0.028504 -0.177993 0.665100
-0.028427 -0.176248 0.663300
-0.028427 -0.174985 0.663300
-0.028427 -0.173721 0.663300
-0.028389 -0.172224 0.662400
-0.028389 -0.170962 0.662400
-0.028389 -0.169701 0.662400
-0.028389 -0.168439 0.662400
-0.028311 -0.166723 0.660600
-0.028311 -0.165465 0.660600
-0.028389 -0.164654 0.662400
-0.028389 -0.163392 0.662400
-0.028427 -0.162351 0.663300
-0.028427 -0.161087 0.663300
-0.028427 -0.159824 0.663300
-0.028427 -0.158560 0.663300
-0.028504 -0.157724 0.665100
-0.028504 -0.156457 0.665100
-0.028504 -0.155190 0.665100
-0.028543 -0.154131 0.666000
-0.028543 -0.152863 0.666000
-0.028543 -0.151594 0.666000
-0.028736 -0.151341 0.670500
-0.028736 -0.150064 0.670500
-0.028736 -0.148787 0.670500
-0.028813 -0.147906 0.672300
-0.028813 -0.146625 0.672300
-0.028813 -0.145345 0.672300
-0.028813 -0.144064 0.672300
-0.028851 -0.142975 0.673200
-0.028851 -0.141693 0.673200
-0.028851 -0.140410 0.673200
-0.028929 -0.139500 0.675000
-0.029006 -0.138583 0.676800
-0.029006 -0.137294 0.676800
-0.029044 -0.136185 0.677700
-0.029121 -0.135253 0.679500
-0.029121 -0.133959 0.679500
-0.029160 -0.132840 0.680400
-0.029160 -0.131544 0.680400
-0.029160 -0.130248 0.680400
-0.029237 -0.129293 0.682200
-0.029237 -0.127994 0.682200
-0.029237 -0.126694 0.682200
-0.029314 -0.125726 0.684000
-0.029314 -0.124423 0.684000
-0.029237 -0.122796 0.682200
-0.029237 -0.121497 0.682200
-0.029237 -0.120197 0.682200
-0.029237 -0.118898 0.682200
-0.029777 -0.119770 0.694800
-0.029623 -0.117833 0.691200
-0.029700 -0.116820 0.693000
-0.029700 -0.115500 0.693000
-0.029700 -0.114180 0.693000
-0.029700 -0.112860 0.693000
-0.029700 -0.111540 0.693000
-0.029777 -0.110506 0.694800
-0.029777 -0.109183 0.694800
-0.029777 -0.107859 0.694800
-0.029777 -0.106536 0.694800
-0.029816 -0.105349 0.695700
-0.029893 -0.104293 0.697500
-0.029893 -0.102964 0.697500
-0.029893 -0.101636 0.697500
-0.029970 -0.100566 0.699300
-0.029970 -0.099234 0.699300
-0.029970 -0.097902 0.699300
-0.030047 -0.096819 0.701100
-0.030086 -0.095606 0.702000
-0.030086 -0.094269 0.702000
-0.030163 -0.093170 0.703800
-0.030240 -0.092064 0.705600
-0.030240 -0.090720 0.705600
-0.030240 -0.089376 0.705600
-0.030317 -0.088257 0.707400
-0.030317 -0.086909 0.707400
-0.030394 -0.085779 0.709200
-0.030394 -0.084429 0.709200
-0.030394 -0.083078 0.709200
-0.030433 -0.081831 0.710100
-0.030433 -0.080478 0.710100
-0.030510 -0.079326 0.711900
-0.030510 -0.077970 0.711900
-0.030510 -0.076614 0.711900
-0.030587 -0.075448 0.713700
-0.030587 -0.074089 0.713700
-0.030664 -0.072913 0.715500
-0.030741 -0.071730 0.717300
-0.030780 -0.070452 0.718200
-0.030780 -0.069084 0.718200
-0.030857 -0.067886 0.720000
-0.030934 -0.066681 0.721800
-0.031011 -0.065469 0.723600
-0.031011 -0.064090 0.723600
-0.031011 -0.062712 0.723600
-0.031089 -0.061486 0.725400
-0.031089 -0.060105 0.725400
-0.031089 -0.058723 0.725400
-0.031166 -0.057483 0.727200
-0.031166 -0.056098 0.727200
-0.031243 -0.054849 0.729000
-0.031320 -0.053592 0.730800
-0.031397 -0.052329 0.732600
-0.031436 -0.050996 0.733500
-0.031436 -0.049599 0.733500
-0.031513 -0.048320 0.735300
-0.031513 -0.046919 0.735300
-0.031513 -0.045519 0.735300
-0.031590 -0.044226 0.737100
-0.031667 -0.042927 0.738900
-0.031667 -0.041519 0.738900
-0.031744 -0.040209 0.740700
-0.031744 -0.038799 0.740700
-0.031821 -0.037479 0.742500
-0.031821 -0.036064 0.742500
-0.031821 -0.034650 0.742500
-0.031899 -0.033316 0.744300
-0.031899 -0.031899 0.744300
-0.031976 -0.030555 0.746100
-0.031976 -0.029133 0.746100
-0.032053 -0.027779 0.747900
-0.032053 -0.026355 0.747900
-0.032130 -0.024990 0.749700
-0.032130 -0.023562 0.749700
-0.032207 -0.022187 0.751500
-0.032284 -0.020805 0.753300
-0.032284 -0.019371 0.753300
-0.027938 -0.234547 0.682200
-0.027938 -0.233247 0.682200
-0.027938 -0.231948 0.682200
-0.027938 -0.230649 0.682200
-0.027938 -0.229349 0.682200
-0.028011 -0.228651 0.684000
-0.028011 -0.227349 0.684000
-0.028048 -0.226343 0.684900
-0.028122 -0.225630 0.686700
-0.028122 -0.224322 0.686700
-0.028122 -0.223014 0.686700
-0.028122 -0.221706 0.686700
-0.028196 -0.220976 0.688500
-0.028196 -0.219664 0.688500
-0.028196 -0.218353 0.688500
-0.028196 -0.217041 0.688500
-0.028122 -0.215166 0.686700
-0.028122 -0.213858 0.686700
-0.028122 -0.212550 0.686700
-0.028048 -0.210688 0.684900
-0.028011 -0.209109 0.684000
-0.027938 -0.207259 0.682200
-0.027864 -0.205416 0.680400
-0.027827 -0.203850 0.679500
-0.027827 -0.202556 0.679500
-0.027753 -0.200728 0.677700
-0.027717 -0.199173 0.676800
-0.027643 -0.197357 0.675000
-0.027569 -0.195549 0.673200
-0.027532 -0.194007 0.672300
-0.027532 -0.192726 0.672300
-0.027459 -0.190933 0.670500
-0.027459 -0.189656 0.670500
-0.027385 -0.187873 0.668700
-0.027385 -0.186599 0.668700
-0.027348 -0.185076 0.667800
-0.027348 -0.183804 0.667800
-0.027274 -0.182040 0.666000
-0.027274 -0.180771 0.666000
-0.027237 -0.179260 0.665100
-0.027237 -0.177993 0.665100
-0.027237 -0.176727 0.665100
-0.027164 -0.174985 0.663300
-0.027164 -0.173721 0.663300
-0.027164 -0.172458 0.663300
-0.027127 -0.170962 0.662400
-0.027127 -0.169701 0.662400
-0.027127 -0.168439 0.662400
-0.027127 -0.167177 0.662400
-0.027127 -0.165915 0.662400
-0.027127 -0.164654 0.662400
-0.027164 -0.163614 0.663300
-0.027164 -0.162351 0.663300
-0.027237 -0.161524 0.665100
-0.027164 -0.159824 0.663300
-0.027164 -0.158560 0.663300
-0.027237 -0.157724 0.665100
-0.027237 -0.156457 0.665100
-0.027274 -0.155400 0.666000
-0.027274 -0.154131 0.666000
-0.027348 -0.153276 0.667800
-0.027385 -0.152209 0.668700
-0.027459 -0.151341 0.670500
-0.027459 -0.150064 0.670500
-0.027532 -0.149187 0.672300
-0.027532 -0.147906 0.672300
-0.027532 -0.146625 0.672300
-0.027569 -0.145539 0.673200
-0.027569 -0.144257 0.673200
-0.027643 -0.143357 0.675000
-0.027643 -0.142071 0.675000
-0.027717 -0.141161 0.676800
-0.027717 -0.139872 0.676800
-0.027753 -0.138767 0.677700
-0.027827 -0.137841 0.679500
-0.027827 -0.136547 0.679500
-0.027864 -0.135432 0.680400
-0.027864 -0.134136 0.680400
-0.027864 -0.132840 0.680400
-0.027938 -0.131892 0.682200
-0.027938 -0.130593 0.682200
-0.028011 -0.129634 0.684000
-0.028011 -0.128331 0.684000
-0.028011 -0.127029 0.684000
-0.028048 -0.125891 0.684900
-0.028048 -0.124587 0.684900
-0.028048 -0.123282 0.684900
-0.028122 -0.122298 0.686700
-0.027938 -0.120197 0.682200
-0.028454 -0.121094 0.694800
-0.028454 -0.119770 0.694800
-0.028380 -0.118140 0.693000
-0.028454 -0.117123 0.694800
-0.028454 -0.115800 0.694800
-0.028454 -0.114477 0.694800
-0.028454 -0.113153 0.694800
-0.028454 -0.111830 0.694800
-0.028454 -0.110506 0.694800
-0.028491 -0.109324 0.695700
-0.028491 -0.107999 0.695700
-0.028564 -0.106950 0.697500
-0.028564 -0.105621 0.697500
-0.028638 -0.104562 0.699300
-0.028638 -0.103230 0.699300
-0.028638 -0.101898 0.699300
-0.028712 -0.100825 0.701100
-0.028712 -0.099489 0.701100
-0.028712 -0.098154 0.701100
-0.028749 -0.096943 0.702000
-0.028822 -0.095851 0.703800
-0.028822 -0.094510 0.703800
-0.028896 -0.093408 0.705600
-0.028896 -0.092064 0.705600
-0.028970 -0.090951 0.707400
-0.029043 -0.089832 0.709200
-0.029043 -0.088481 0.709200
-0.029080 -0.087241 0.710100
-0.029080 -0.085888 0.710100
-0.029080 -0.084536 0.710100
-0.029043 -0.083078 0.709200
-0.029154 -0.082038 0.711900
-0.029228 -0.080886 0.713700
-0.029228 -0.079527 0.713700
-0.029228 -0.078167 0.713700
-0.029301 -0.077001 0.715500
-0.029301 -0.075639 0.715500
-0.029375 -0.074463 0.717300
-0.029375 -0.073096 0.717300
-0.029412 -0.071820 0.718200
-0.029412 -0.070452 0.718200
-0.029486 -0.069257 0.720000
-0.029486 -0.067886 0.720000
-0.029559 -0.066681 0.721800
-0.029633 -0.065469 0.723600
-0.029633 -0.064090 0.723600
-0.029707 -0.062868 0.725400
-0.029707 -0.061486 0.725400
-0.029707 -0.060105 0.725400
-0.029781 -0.058869 0.727200
-0.029781 -0.057483 0.727200
-0.029781 -0.056098 0.727200
-0.029928 -0.054984 0.730800
-0.030002 -0.053724 0.732600
-0.030002 -0.052329 0.732600
-0.030039 -0.050996 0.733500
-0.030112 -0.049720 0.735300
-0.030112 -0.048320 0.735300
-0.030186 -0.047034 0.737100
-0.030186 -0.045630 0.737100
-0.030260 -0.044334 0.738900
-0.030260 -0.042927 0.738900
-0.030333 -0.041620 0.740700
-0.030407 -0.040307 0.742500
-0.030407 -0.038893 0.742500
-0.030407 -0.037479 0.742500
-0.030481 -0.036152 0.744300
-0.030481 -0.034734 0.744300
-0.030555 -0.033397 0.746100
-0.030555 -0.031976 0.746100
-0.030555 -0.030555 0.746100
-0.030628 -0.029204 0.747900
-0.030702 -0.027846 0.749700
-0.030702 -0.026418 0.749700
-0.030702 -0.024990 0.749700
-0.030776 -0.023619 0.751500
-0.030849 -0.022240 0.753300
-0.030923 -0.020855 0.755100
-0.026638 -0.235846 0.682200
-0.026638 -0.234547 0.682200
-0.026638 -0.233247 0.682200
-0.026638 -0.231948 0.682200
-0.026638 -0.230649 0.682200
-0.026638 -0.229349 0.682200
-0.026709 -0.228651 0.684000
-0.026709 -0.227349 0.684000
-0.026744 -0.226343 0.684900
-0.026814 -0.225630 0.686700
-0.026814 -0.224322 0.686700
-0.026884 -0.223599 0.688500
-0.026884 -0.222287 0.688500
-0.026884 -0.220976 0.688500
-0.026884 -0.219664 0.688500
-0.026884 -0.218353 0.688500
-0.026884 -0.217041 0.688500
-0.026814 -0.215166 0.686700
-0.026814 -0.213858 0.686700
-0.026814 -0.212550 0.686700
-0.026744 -0.210688 0.684900
-0.026744 -0.209384 0.684900
-0.026638 -0.207259 0.682200
-0.026568 -0.205416 0.680400
-0.026533 -0.203850 0.679500
-0.026533 -0.202556 0.679500
-0.026463 -0.200728 0.677700
-0.026427 -0.199173 0.676800
-0.026427 -0.197883 0.676800
-0.026357 -0.196071 0.675000
-0.026287 -0.194266 0.673200
-0.026252 -0.192726 0.672300
-0.026181 -0.190933 0.670500
-0.026181 -0.189656 0.670500
-0.026181 -0.188379 0.670500
-0.026111 -0.186599 0.668700
-0.026111 -0.185325 0.668700
-0.026111 -0.184052 0.668700
-0.026076 -0.182532 0.667800
-0.026006 -0.180771 0.666000
-0.026006 -0.179503 0.666000
-0.025971 -0.177993 0.665100
-0.025971 -0.176727 0.665100
-0.025971 -0.175460 0.665100
-0.025900 -0.173721 0.663300
-0.025900 -0.172458 0.663300
-0.025900 -0.171195 0.663300
-0.025900 -0.169931 0.663300
-0.025900 -0.168668 0.663300
-0.025900 -0.167404 0.663300
-0.025865 -0.165915 0.662400
-0.025900 -0.164877 0.663300
-0.025900 -0.163614 0.663300
-0.025971 -0.162791 0.665100
-0.025971 -0.161524 0.665100
-0.025971 -0.160257 0.665100
-0.025971 -0.158991 0.665100
-0.026006 -0.157937 0.666000
-0.026006 -0.156669 0.666000
-0.026006 -0.155400 0.666000
-0.026076 -0.154548 0.667800
-0.026111 -0.153483 0.668700
-0.026111 -0.152209 0.668700
-0.026181 -0.151341 0.670500
-0.026252 -0.150467 0.672300
-0.026252 -0.149187 0.672300
-0.026287 -0.148104 0.673200
-0.026287 -0.146822 0.673200
-0.026357 -0.145929 0.675000
-0.026357 -0.144643 0.675000
-0.026357 -0.143357 0.675000
-0.026427 -0.142450 0.676800
-0.026427 -0.141161 0.676800
-0.026463 -0.140058 0.677700
-0.026533 -0.139136 0.679500
-0.026568 -0.138024 0.680400
-0.026568 -0.136728 0.680400
-0.026568 -0.135432 0.680400
-0.026638 -0.134491 0.682200
-0.026638 -0.133191 0.682200
-0.026638 -0.131892 0.682200
-0.026709 -0.130937 0.684000
-0.026709 -0.129634 0.684000
-0.026744 -0.128500 0.684900
-0.026744 -0.127196 0.684900
-0.026814 -0.126222 0.686700
-0.026814 -0.124914 0.686700
-0.026814 -0.123606 0.686700
-0.026884 -0.122619 0.688500
-0.026955 -0.121624 0.690300
-0.027060 -0.120780 0.693000
-0.027060 -0.119460 0.693000
-0.027060 -0.118140 0.693000
-0.027130 -0.117123 0.694800
-0.027130 -0.115800 0.694800
-0.027130 -0.114477 0.694800
-0.027130 -0.113153 0.694800
-0.027130 -0.111830 0.694800
-0.027130 -0.110506 0.694800
-0.027165 -0.109324 0.695700
-0.027165 -0.107999 0.695700
-0.027236 -0.106950 0.697500
-0.027306 -0.105894 0.699300
-0.027306 -0.104562 0.699300
-0.027376 -0.103496 0.701100
-0.027376 -0.102160 0.701100
-0.027376 -0.100825 0.701100
-0.027411 -0.099617 0.702000
-0.027411 -0.098280 0.702000
-0.027482 -0.097191 0.703800
-0.027552 -0.096096 0.705600
-0.027552 -0.094752 0.705600
-0.027622 -0.093646 0.707400
-0.027622 -0.092299 0.707400
-0.027693 -0.091183 0.709200
-0.027693 -0.089832 0.709200
-0.027728 -0.088593 0.710100
-0.027728 -0.087241 0.710100
-0.027798 -0.086106 0.711900
-0.027798 -0.084750 0.711900
-0.027798 -0.083394 0.711900
-0.027868 -0.082245 0.713700
-0.027868 -0.080886 0.713700
-0.027939 -0.079727 0.715500
-0.027939 -0.078364 0.715500
-0.028009 -0.077195 0.717300
-0.028009 -0.075829 0.717300
-0.028009 -0.074463 0.717300
-0.028044 -0.073188 0.718200
-0.028044 -0.071820 0.718200
-0.028114 -0.070629 0.720000
-0.028114 -0.069257 0.720000
-0.028185 -0.068055 0.721800
-0.028255 -0.066847 0.723600
-0.028325 -0.065631 0.725400
-0.028325 -0.064250 0.725400
-0.028325 -0.062868 0.725400
-0.028395 -0.061639 0.727200
-0.028395 -0.060254 0.727200
-0.028395 -0.058869 0.727200
-0.028395 -0.057483 0.727200
-0.028466 -0.056237 0.729000
-0.028606 -0.055119 0.732600
-0.028606 -0.053724 0.732600
-0.028641 -0.052393 0.733500
-0.028712 -0.051121 0.735300
-0.028712 -0.049720 0.735300
-0.028782 -0.048438 0.737100
-0.028852 -0.047149 0.738900
-0.028852 -0.045741 0.738900
-0.028852 -0.044334 0.738900
-0.028923 -0.043031 0.740700
-0.028923 -0.041620 0.740700
-0.028993 -0.040307 0.742500
-0.029063 -0.038987 0.744300
-0.029063 -0.037569 0.744300
-0.029133 -0.036239 0.746100
-0.029133 -0.034818 0.746100
-0.029133 -0.033397 0.746100
-0.029204 -0.032053 0.747900
-0.029204 -0.030628 0.747900
-0.029274 -0.029274 0.749700
-0.029344 -0.027913 0.751500
-0.029344 -0.026481 0.751500
-0.029415 -0.025110 0.753300
-0.029485 -0.023732 0.755100
-0.029555 -0.022347 0.756900
-0.025272 -0.236520 0.680400
-0.025272 -0.235224 0.680400
-0.025339 -0.234547 0.682200
-0.025339 -0.233247 0.682200
-0.025339 -0.231948 0.682200
-0.025339 -0.230649 0.682200
-0.025406 -0.229954 0.684000
-0.025406 -0.228651 0.684000
-0.025439 -0.227648 0.684900
-0.025506 -0.226938 0.686700
-0.025506 -0.225630 0.686700
-0.025573 -0.224910 0.688500
-0.025573 -0.223599 0.688500
-0.025573 -0.222287 0.688500
-0.025573 -0.220976 0.688500
-0.025573 -0.219664 0.688500
-0.025640 -0.218924 0.690300
-0.025573 -0.217041 0.688500
-0.025573 -0.215730 0.688500
-0.025573 -0.214419 0.688500
-0.025506 -0.212550 0.686700
-0.025506 -0.211242 0.686700
-0.025439 -0.209384 0.684900
-0.025339 -0.207259 0.682200
-0.025272 -0.205416 0.680400
-0.025239 -0.203850 0.679500
-0.025172 -0.202019 0.677700
-0.025172 -0.200728 0.677700
-0.025138 -0.199173 0.676800
-0.025138 -0.197883 0.676800
-0.025071 -0.196071 0.675000
-0.025071 -0.194786 0.675000
-0.025005 -0.192984 0.673200
-0.024971 -0.191445 0.672300
-0.024904 -0.189656 0.670500
-0.024904 -0.188379 0.670500
-0.024904 -0.187101 0.670500
-0.024837 -0.185325 0.668700
-0.024837 -0.184052 0.668700
-0.024804 -0.182532 0.667800
-0.024804 -0.181260 0.667800
-0.024804 -0.179988 0.667800
-0.024737 -0.178234 0.666000
-0.024704 -0.176727 0.665100
-0.024704 -0.175460 0.665100
-0.024637 -0.173721 0.663300
-0.024637 -0.172458 0.663300
-0.024637 -0.171195 0.663300
-0.024704 -0.170392 0.665100
-0.024704 -0.169125 0.665100
-0.024704 -0.167859 0.665100
-0.024704 -0.166592 0.665100
-0.024704 -0.165325 0.665100
-0.024704 -0.164058 0.665100
-0.024704 -0.162791 0.665100
-0.024737 -0.161743 0.666000
-0.024737 -0.160474 0.666000
-0.024737 -0.159206 0.666000
-0.024804 -0.158364 0.667800
-0.024837 -0.157304 0.668700
-0.024837 -0.156030 0.668700
-0.024837 -0.154756 0.668700
-0.024904 -0.153896 0.670500
-0.024904 -0.152619 0.670500
-0.024971 -0.151748 0.672300
-0.025005 -0.150669 0.673200
-0.025005 -0.149386 0.673200
-0.025005 -0.148104 0.673200
-0.025005 -0.146822 0.673200
-0.025071 -0.145929 0.675000
-0.025071 -0.144643 0.675000
-0.025138 -0.143739 0.676800
-0.025172 -0.142640 0.677700
-0.025239 -0.141724 0.679500
-0.025239 -0.140430 0.679500
-0.025272 -0.139320 0.680400
-0.025339 -0.138389 0.682200
-0.025272 -0.136728 0.680400
-0.025339 -0.135790 0.682200
-0.025339 -0.134491 0.682200
-0.025339 -0.133191 0.682200
-0.025406 -0.132240 0.684000
-0.025406 -0.130937 0.684000
-0.025439 -0.129805 0.684900
-0.025439 -0.128500 0.684900
-0.025506 -0.127530 0.686700
-0.025506 -0.126222 0.686700
-0.025573 -0.125241 0.688500
-0.025640 -0.124254 0.690300
-0.025740 -0.123420 0.693000
-0.025673 -0.121783 0.691200
-0.025807 -0.121094 0.694800
-0.025807 -0.119770 0.694800
-0.025807 -0.118447 0.694800
-0.025807 -0.117123 0.694800
-0.025807 -0.115800 0.694800
-0.025807 -0.114477 0.694800
-0.025807 -0.113153 0.694800
-0.025840 -0.111975 0.695700
-0.025840 -0.110649 0.695700
-0.025907 -0.109607 0.697500
-0.025907 -0.108279 0.697500
-0.025974 -0.107226 0.699300
-0.025974 -0.105894 0.699300
-0.026041 -0.104831 0.701100
-0.026041 -0.103496 0.701100
-0.026074 -0.102291 0.702000
-0.026074 -0.100954 0.702000
-0.026074 -0.099617 0.702000
-0.026141 -0.098532 0.703800
-0.026208 -0.097440 0.705600
-0.026208 -0.096096 0.705600
-0.026275 -0.094994 0.707400
-0.026275 -0.093646 0.707400
-0.026342 -0.092534 0.709200
-0.026375 -0.091299 0.710100
-0.026442 -0.090174 0.711900
-0.026442 -0.088818 0.711900
-0.026442 -0.087462 0.711900
-0.026509 -0.086324 0.713700
-0.026509 -0.084964 0.713700
-0.026509 -0.083605 0.713700
-0.026576 -0.082453 0.715500
-0.026576 -0.081090 0.715500
-0.026643 -0.079928 0.717300
-0.026676 -0.078660 0.718200
-0.026676 -0.077292 0.718200
-0.026676 -0.075924 0.718200
-0.026676 -0.074556 0.718200
-0.026743 -0.073371 0.720000
-0.026743 -0.072000 0.720000
-0.026743 -0.070629 0.720000
-0.026810 -0.069430 0.721800
-0.026810 -0.068055 0.721800
-0.026877 -0.066847 0.723600
-0.026943 -0.065631 0.725400
-0.026943 -0.064250 0.725400
-0.026943 -0.062868 0.725400
-0.027010 -0.061639 0.727200
-0.027010 -0.060254 0.727200
-0.027077 -0.059014 0.729000
-0.027077 -0.057626 0.729000
-0.027144 -0.056376 0.730800
-0.027244 -0.055187 0.733500
-0.027244 -0.053790 0.733500
-0.027244 -0.052393 0.733500
-0.027311 -0.051121 0.735300
-0.027378 -0.049842 0.737100
-0.027445 -0.048556 0.738900
-0.027445 -0.047149 0.738900
-0.027445 -0.045741 0.738900
-0.027512 -0.044442 0.740700
-0.027512 -0.043031 0.740700
-0.027512 -0.041620 0.740700
-0.027645 -0.040405 0.744300
-0.027712 -0.039081 0.746100
-0.027712 -0.037660 0.746100
-0.027779 -0.036327 0.747900
-0.027779 -0.034902 0.747900
-0.027779 -0.033477 0.747900
-0.027846 -0.032130 0.749700
-0.027913 -0.030776 0.751500
-0.027913 -0.029344 0.751500
-0.027980 -0.027980 0.753300
-0.028047 -0.026608 0.755100
-0.028047 -0.025170 0.755100
-0.028113 -0.023788 0.756900
-0.023976 -0.236520 0.680400
-0.023976 -0.235224 0.680400
-0.024103 -0.235166 0.684000
-0.024103 -0.233863 0.684000
-0.024103 -0.232560 0.684000
-0.024103 -0.231257 0.684000
-0.024103 -0.229954 0.684000
-0.024135 -0.228952 0.684900
-0.024198 -0.228246 0.686700
-0.024198 -0.226938 0.686700
-0.024261 -0.226221 0.688500
-0.024261 -0.224910 0.688500
-0.024261 -0.223599 0.688500
-0.024325 -0.222868 0.690300
-0.024325 -0.221553 0.690300
-0.024325 -0.220239 0.690300
-0.024325 -0.218924 0.690300
-0.024325 -0.217609 0.690300
-0.024261 -0.215730 0.688500
-0.024261 -0.214419 0.688500
-0.024198 -0.212550 0.686700
-0.024198 -0.211242 0.686700
-0.024135 -0.209384 0.684900
-0.024039 -0.207259 0.682200
-0.023976 -0.205416 0.680400
-0.023944 -0.203850 0.679500
-0.023944 -0.202556 0.679500
-0.023881 -0.200728 0.677700
-0.023881 -0.199437 0.677700
-0.023849 -0.197883 0.676800
-0.023786 -0.196071 0.675000
-0.023786 -0.194786 0.675000
-0.023722 -0.192984 0.673200
-0.023691 -0.191445 0.672300
-0.023691 -0.190165 0.672300
-0.023691 -0.188884 0.672300
-0.023627 -0.187101 0.670500
-0.023564 -0.185325 0.668700
-0.023564 -0.184052 0.668700
-0.023564 -0.182778 0.668700
-0.023564 -0.181504 0.668700
-0.023564 -0.180231 0.668700
-0.023532 -0.178716 0.667800
-0.023469 -0.176966 0.666000
-0.023437 -0.175460 0.665100
-0.023437 -0.174193 0.665100
-0.023437 -0.172926 0.665100
-0.023437 -0.171659 0.665100
-0.023437 -0.170392 0.665100
-0.023437 -0.169125 0.665100
-0.023437 -0.167859 0.665100
-0.023469 -0.166817 0.666000
-0.023469 -0.165549 0.666000
-0.023532 -0.164724 0.667800
-0.023532 -0.163452 0.667800
-0.023532 -0.162180 0.667800
-0.023532 -0.160908 0.667800
-0.023532 -0.159636 0.667800
-0.023564 -0.158577 0.668700
-0.023564 -0.157304 0.668700
-0.023627 -0.156450 0.670500
-0.023627 -0.155173 0.670500
-0.023691 -0.154309 0.672300
-0.023691 -0.153028 0.672300
-0.023722 -0.151951 0.673200
-0.023786 -0.151071 0.675000
-0.023786 -0.149786 0.675000
-0.023786 -0.148500 0.675000
-0.023786 -0.147214 0.675000
-0.023786 -0.145929 0.675000
-0.023849 -0.145029 0.676800
-0.023881 -0.143931 0.677700
-0.023944 -0.143019 0.679500
-0.023976 -0.141912 0.680400
-0.023976 -0.140616 0.680400
-0.023976 -0.139320 0.680400
-0.024039 -0.138389 0.682200
-0.024039 -0.137090 0.682200
-0.024039 -0.135790 0.682200
-0.024039 -0.134491 0.682200
-0.024103 -0.133543 0.684000
-0.024103 -0.132240 0.684000
-0.024135 -0.131109 0.684900
-0.024135 -0.129805 0.684900
-0.024198 -0.128838 0.686700
-0.024198 -0.127530 0.686700
-0.024261 -0.126553 0.688500
-0.024261 -0.125241 0.688500
-0.024420 -0.124740 0.693000
-0.024483 -0.123741 0.694800
-0.024483 -0.122417 0.694800
-0.024515 -0.121251 0.695700
-0.024515 -0.119925 0.695700
-0.024515 -0.118600 0.695700
-0.024515 -0.117275 0.695700
-0.024515 -0.115950 0.695700
-0.024515 -0.114625 0.695700
-0.024515 -0.113300 0.695700
-0.024579 -0.112264 0.697500
-0.024515 -0.110649 0.695700
-0.024579 -0.109607 0.697500
-0.024642 -0.108558 0.699300
-0.024642 -0.107226 0.699300
-0.024705 -0.106167 0.701100
-0.024705 -0.104831 0.701100
-0.024737 -0.103629 0.702000
-0.024801 -0.102554 0.703800
-0.024801 -0.101213 0.703800
-0.024864 -0.100128 0.705600
-0.024864 -0.098784 0.705600
-0.024864 -0.097440 0.705600
-0.024927 -0.096341 0.707400
-0.024927 -0.094994 0.707400
-0.025023 -0.094004 0.710100
-0.025086 -0.092886 0.711900
-0.025086 -0.091530 0.711900
-0.025086 -0.090174 0.711900
-0.025149 -0.089043 0.713700
-0.025149 -0.087683 0.713700
-0.025149 -0.086324 0.713700
-0.025213 -0.085179 0.715500
-0.025213 -0.083816 0.715500
-0.025276 -0.082660 0.717300
-0.025276 -0.081294 0.717300
-0.025308 -0.080028 0.718200
-0.025308 -0.078660 0.718200
-0.025371 -0.077486 0.720000
-0.025371 -0.076114 0.720000
-0.025435 -0.074930 0.721800
-0.025435 -0.073555 0.721800
-0.025498 -0.072360 0.723600
-0.025435 -0.070805 0.721800
-0.025435 -0.069430 0.721800
-0.025498 -0.068225 0.723600
-0.025562 -0.067013 0.725400
-0.025625 -0.065794 0.727200
-0.025625 -0.064409 0.727200
-0.025625 -0.063024 0.727200
-0.025689 -0.061791 0.729000
-0.025689 -0.060403 0.729000
-0.025752 -0.059160 0.730800
-0.025752 -0.057768 0.730800
-0.025815 -0.056515 0.732600
-0.025847 -0.055187 0.733500
-0.025847 -0.053790 0.733500
-0.025911 -0.052521 0.735300
-0.025911 -0.051121 0.735300
-0.025974 -0.049842 0.737100
-0.026037 -0.048556 0.738900
-0.026037 -0.047149 0.738900
-0.026101 -0.045853 0.740700
-0.026101 -0.044442 0.740700
-0.026164 -0.043136 0.742500
-0.026164 -0.041721 0.742500
-0.026291 -0.040503 0.746100
-0.026291 -0.039081 0.746100
-0.026355 -0.037751 0.747900
-0.026418 -0.036414 0.749700
-0.026418 -0.034986 0.749700
-0.026481 -0.033639 0.751500
-0.026545 -0.032284 0.753300
-0.026545 -0.030849 0.753300
-0.026545 -0.029415 0.753300
-0.026608 -0.028047 0.755100
-0.026608 -0.026608 0.755100
-0.026672 -0.025230 0.756900
-0.026735 -0.023845 0.758700
-0.022680 -0.236520 0.680400
-0.022800 -0.236469 0.684000
-0.022800 -0.235166 0.684000
-0.022830 -0.234171 0.684900
-0.022830 -0.232866 0.684900
-0.022830 -0.231561 0.684900
-0.022890 -0.230862 0.686700
-0.022890 -0.229554 0.686700
-0.022890 -0.228246 0.686700
-0.022890 -0.226938 0.686700
-0.022950 -0.226221 0.688500
-0.022950 -0.224910 0.688500
-0.022950 -0.223599 0.688500
-0.023010 -0.222868 0.690300
-0.023010 -0.221553 0.690300
-0.023040 -0.220526 0.691200
-0.023040 -0.219209 0.691200
-0.023010 -0.217609 0.690300
-0.023010 -0.216294 0.690300
-0.022950 -0.214419 0.688500
-0.022950 -0.213107 0.688500
-0.022890 -0.211242 0.686700
-0.022890 -0.209934 0.686700
-0.022800 -0.207806 0.684000
-0.022680 -0.205416 0.680400
-0.022650 -0.203850 0.679500
-0.022650 -0.202556 0.679500
-0.022650 -0.201261 0.679500
-0.022590 -0.199437 0.677700
-0.022590 -0.198147 0.677700
-0.022560 -0.196594 0.676800
-0.022500 -0.194786 0.675000
-0.022440 -0.192984 0.673200
-0.022440 -0.191702 0.673200
-0.022440 -0.190419 0.673200
-0.022410 -0.188884 0.672300
-0.022350 -0.187101 0.670500
-0.022350 -0.185824 0.670500
-0.022350 -0.184547 0.670500
-0.022290 -0.182778 0.668700
-0.022290 -0.181504 0.668700
-0.022290 -0.180231 0.668700
-0.022260 -0.178716 0.667800
-0.022260 -0.177444 0.667800
-0.022200 -0.175697 0.666000
-0.022170 -0.174193 0.665100
-0.022170 -0.172926 0.665100
-0.022170 -0.171659 0.665100
-0.022170 -0.170392 0.665100
-0.022200 -0.169354 0.666000
-0.022200 -0.168086 0.666000
-0.022200 -0.166817 0.666000
-0.022260 -0.165996 0.667800
-0.022260 -0.164724 0.667800
-0.022290 -0.163672 0.668700
-0.022290 -0.162399 0.668700
-0.022290 -0.161125 0.668700
-0.022350 -0.160281 0.670500
-0.022350 -0.159004 0.670500
-0.022350 -0.157727 0.670500
-0.022350 -0.156450 0.670500
-0.022410 -0.155589 0.672300
-0.022440 -0.154515 0.673200
-0.022440 -0.153233 0.673200
-0.022500 -0.152357 0.675000
-0.022500 -0.151071 0.675000
-0.022500 -0.149786 0.675000
-0.022500 -0.148500 0.675000
-0.022560 -0.147607 0.676800
-0.022560 -0.146318 0.676800
-0.022590 -0.145221 0.677700
-0.022650 -0.144313 0.679500
-0.022680 -0.143208 0.680400
-0.022740 -0.142287 0.682200
-0.022740 -0.140988 0.682200
-0.022740 -0.139689 0.682200
-0.022800 -0.138754 0.684000
-0.022800 -0.137451 0.684000
-0.022800 -0.136149 0.684000
-0.022800 -0.134846 0.684000
-0.022800 -0.133543 0.684000
-0.022830 -0.132414 0.684900
-0.022830 -0.131109 0.684900
-0.022890 -0.130146 0.686700
-0.022890 -0.128838 0.686700
-0.022950 -0.127864 0.688500
-0.023010 -0.126884 0.690300
-0.023010 -0.125569 0.690300
-0.023160 -0.125064 0.694800
-0.023190 -0.123901 0.695700
-0.023190 -0.122576 0.695700
-0.023190 -0.121251 0.695700
-0.023190 -0.119925 0.695700
-0.023190 -0.118600 0.695700
-0.023250 -0.117579 0.697500
-0.023250 -0.116250 0.697500
-0.023250 -0.114921 0.697500
-0.023250 -0.113593 0.697500
-0.023250 -0.112264 0.697500
-0.023250 -0.110936 0.697500
-0.023310 -0.109890 0.699300
-0.023310 -0.108558 0.699300
-0.023370 -0.107502 0.701100
-0.023370 -0.106167 0.701100
-0.023370 -0.104831 0.701100
-0.023400 -0.103629 0.702000
-0.023460 -0.102554 0.703800
-0.023520 -0.101472 0.705600
-0.023520 -0.100128 0.705600
-0.023580 -0.099036 0.707400
-0.023580 -0.097689 0.707400
-0.023640 -0.096586 0.709200
-0.023670 -0.095356 0.710100
-0.023730 -0.094242 0.711900
-0.023730 -0.092886 0.711900
-0.023730 -0.091530 0.711900
-0.023790 -0.090402 0.713700
-0.023790 -0.089043 0.713700
-0.023790 -0.087683 0.713700
-0.023850 -0.086541 0.715500
-0.023910 -0.085393 0.717300
-0.023850 -0.083816 0.715500
-0.023940 -0.082764 0.718200
-0.023940 -0.081396 0.718200
-0.024000 -0.080229 0.720000
-0.024000 -0.078857 0.720000
-0.024000 -0.077486 0.720000
-0.024060 -0.076305 0.721800
-0.024120 -0.075117 0.723600
-0.024120 -0.073738 0.723600
-0.024120 -0.072360 0.723600
-0.024120 -0.070982 0.723600
-0.024180 -0.069777 0.725400
-0.024240 -0.068565 0.727200
-0.024240 -0.067179 0.727200
-0.024240 -0.065794 0.727200
-0.024240 -0.064409 0.727200
-0.024300 -0.063180 0.729000
-0.024300 -0.061791 0.729000
-0.024360 -0.060552 0.730800
-0.024420 -0.059306 0.732600
-0.024420 -0.057910 0.732600
-0.024420 -0.056515 0.732600
-0.024510 -0.055323 0.735300
-0.024510 -0.053922 0.735300
-0.024570 -0.052650 0.737100
-0.024570 -0.051246 0.737100
-0.024630 -0.049964 0.738900
-0.024630 -0.048556 0.738900
-0.024690 -0.047264 0.740700
-0.024690 -0.045853 0.740700
-0.024750 -0.044550 0.742500
-0.024750 -0.043136 0.742500
-0.024870 -0.041924 0.746100
-0.024870 -0.040503 0.746100
-0.024930 -0.039176 0.747900
-0.024930 -0.037751 0.747900
-0.024990 -0.036414 0.749700
-0.025050 -0.035070 0.751500
-0.025110 -0.033719 0.753300
-0.025170 -0.032361 0.755100
-0.025170 -0.030923 0.755100
-0.025290 -0.029625 0.758700
-0.025170 -0.028047 0.755100
-0.025290 -0.026735 0.758700
-0.025290 -0.025290 0.758700
-0.021582 -0.237402 0.686700
-0.021582 -0.236094 0.686700
-0.021525 -0.234171 0.684900
-0.021525 -0.232866 0.684900
-0.021525 -0.231561 0.684900
-0.021582 -0.230862 0.686700
-0.021582 -0.229554 0.686700
-0.021582 -0.228246 0.686700
-0.021582 -0.226938 0.686700
-0.021639 -0.226221 0.688500
-0.021639 -0.224910 0.688500
-0.021639 -0.223599 0.688500
-0.021695 -0.222868 0.690300
-0.021723 -0.221842 0.691200
-0.021723 -0.220526 0.691200
-0.021723 -0.219209 0.691200
-0.021723 -0.217893 0.691200
-0.021695 -0.216294 0.690300
-0.021695 -0.214979 0.690300
-0.021639 -0.213107 0.688500
-0.021582 -0.211242 0.686700
-0.021582 -0.209934 0.686700
-0.021497 -0.207806 0.684000
-0.021441 -0.205959 0.682200
-0.021384 -0.204120 0.680400
-0.021356 -0.202556 0.679500
-0.021356 -0.201261 0.679500
-0.021299 -0.199437 0.677700
-0.021271 -0.197883 0.676800
-0.021271 -0.196594 0.676800
-0.021214 -0.194786 0.675000
-0.021158 -0.192984 0.673200
-0.021158 -0.191702 0.673200
-0.021158 -0.190419 0.673200
-0.021129 -0.188884 0.672300
-0.021073 -0.187101 0.670500
-0.021073 -0.185824 0.670500
-0.021073 -0.184547 0.670500
-0.021073 -0.183270 0.670500
-0.021073 -0.181993 0.670500
-0.021016 -0.180231 0.668700
-0.021016 -0.178957 0.668700
-0.021016 -0.177683 0.668700
-0.020931 -0.175697 0.666000
-0.020931 -0.174429 0.666000
-0.020903 -0.172926 0.665100
-0.020903 -0.171659 0.665100
-0.020931 -0.170623 0.666000
-0.020931 -0.169354 0.666000
-0.020931 -0.168086 0.666000
-0.020988 -0.167268 0.667800
-0.021016 -0.166220 0.668700
-0.021016 -0.164946 0.668700
-0.021016 -0.163672 0.668700
-0.021073 -0.162836 0.670500
-0.021073 -0.161559 0.670500
-0.021073 -0.160281 0.670500
-0.021129 -0.159431 0.672300
-0.021129 -0.158151 0.672300
-0.021158 -0.157080 0.673200
-0.021158 -0.155798 0.673200
-0.021214 -0.154929 0.675000
-0.021158 -0.153233 0.673200
-0.021214 -0.152357 0.675000
-0.021214 -0.151071 0.675000
-0.021271 -0.150185 0.676800
-0.021271 -0.148896 0.676800
-0.021271 -0.147607 0.676800
-0.021299 -0.146512 0.677700
-0.021299 -0.145221 0.677700
-0.021384 -0.144504 0.680400
-0.021384 -0.143208 0.680400
-0.021441 -0.142287 0.682200
-0.021441 -0.140988 0.682200
-0.021497 -0.140057 0.684000
-0.021497 -0.138754 0.684000
-0.021525 -0.137632 0.684900
-0.021525 -0.136328 0.684900
-0.021525 -0.135023 0.684900
-0.021582 -0.134070 0.686700
-0.021582 -0.132762 0.686700
-0.021582 -0.131454 0.686700
-0.021639 -0.130487 0.688500
-0.021639 -0.129176 0.688500
-0.021639 -0.127864 0.688500
-0.021695 -0.126884 0.690300
-0.021723 -0.125733 0.691200
-0.021837 -0.125064 0.694800
-0.021865 -0.123901 0.695700
-0.021865 -0.122576 0.695700
-0.021865 -0.121251 0.695700
-0.021921 -0.120236 0.697500
-0.021921 -0.118907 0.697500
-0.021921 -0.117579 0.697500
-0.021921 -0.116250 0.697500
-0.021978 -0.115218 0.699300
-0.021978 -0.113886 0.699300
-0.021978 -0.112554 0.699300
-0.021921 -0.110936 0.697500
-0.022035 -0.110173 0.701100
-0.022035 -0.108837 0.701100
-0.022035 -0.107502 0.701100
-0.022063 -0.106303 0.702000
-0.022063 -0.104966 0.702000
-0.022119 -0.103894 0.703800
-0.022176 -0.102816 0.705600
-0.022176 -0.101472 0.705600
-0.022233 -0.100383 0.707400
-0.022233 -0.099036 0.707400
-0.022233 -0.097689 0.707400
-0.022289 -0.096586 0.709200
-0.022374 -0.095598 0.711900
-0.022374 -0.094242 0.711900
-0.022374 -0.092886 0.711900
-0.022431 -0.091761 0.713700
-0.022431 -0.090402 0.713700
-0.022431 -0.089043 0.713700
-0.022487 -0.087904 0.715500
-0.022487 -0.086541 0.715500
-0.022544 -0.085393 0.717300
-0.022544 -0.084027 0.717300
-0.022572 -0.082764 0.718200
-0.022629 -0.081600 0.720000
-0.022629 -0.080229 0.720000
-0.022629 -0.078857 0.720000
-0.022629 -0.077486 0.720000
-0.022685 -0.076305 0.721800
-0.022742 -0.075117 0.723600
-0.022742 -0.073738 0.723600
-0.022742 -0.072360 0.723600
-0.022798 -0.071158 0.725400
-0.022855 -0.069950 0.727200
-0.022911 -0.068734 0.729000
-0.022968 -0.067512 0.730800
-0.022911 -0.065957 0.729000
-0.022968 -0.064728 0.730800
-0.022968 -0.063336 0.730800
-0.022968 -0.061944 0.730800
-0.023025 -0.060701 0.732600
-0.023025 -0.059306 0.732600
-0.023053 -0.057981 0.733500
-0.023053 -0.056584 0.733500
-0.023109 -0.055323 0.735300
-0.023109 -0.053922 0.735300
-0.023166 -0.052650 0.737100
-0.023223 -0.051371 0.738900
-0.023223 -0.049964 0.738900
-0.023223 -0.048556 0.738900
-0.023279 -0.047264 0.740700
-0.023336 -0.045964 0.742500
-0.023392 -0.044658 0.744300
-0.023392 -0.043240 0.744300
-0.023449 -0.041924 0.746100
-0.023505 -0.040600 0.747900
-0.023562 -0.039270 0.749700
-0.023562 -0.037842 0.749700
-0.023619 -0.036501 0.751500
-0.023675 -0.035154 0.753300
-0.023732 -0.033800 0.755100
-0.023732 -0.032361 0.755100
-0.023788 -0.030997 0.756900
-0.023845 -0.029625 0.758700
-0.023845 -0.028180 0.758700
-0.023901 -0.026799 0.760500
-0.023901 -0.025350 0.760500
-0.020274 -0.237402 0.686700
-0.020274 -0.236094 0.686700
-0.020221 -0.234171 0.684900
-0.020221 -0.232866 0.684900
-0.020194 -0.231257 0.684000
-0.020274 -0.230862 0.686700
-0.020274 -0.229554 0.686700
-0.020274 -0.228246 0.686700
-0.020274 -0.226938 0.686700
-0.020327 -0.226221 0.688500
-0.020327 -0.224910 0.688500
-0.020380 -0.224183 0.690300
-0.020380 -0.222868 0.690300
-0.020407 -0.221842 0.691200
-0.020407 -0.220526 0.691200
-0.020407 -0.219209 0.691200
-0.020407 -0.217893 0.691200
-0.020380 -0.216294 0.690300
-0.020380 -0.214979 0.690300
-0.020327 -0.213107 0.688500
-0.020327 -0.211796 0.688500
-0.020274 -0.209934 0.686700
-0.020194 -0.207806 0.684000
-0.020194 -0.206503 0.684000
-0.020141 -0.204660 0.682200
-0.020088 -0.202824 0.680400
-0.020061 -0.201261 0.679500
-0.020061 -0.199967 0.679500
-0.020008 -0.198147 0.677700
-0.019982 -0.196594 0.676800
-0.019929 -0.194786 0.675000
-0.019929 -0.193500 0.675000
-0.019929 -0.192214 0.675000
-0.019929 -0.190929 0.675000
-0.019875 -0.189137 0.673200
-0.019849 -0.187604 0.672300
-0.019796 -0.185824 0.670500
-0.019849 -0.185043 0.672300
-0.019796 -0.183270 0.670500
-0.019796 -0.181993 0.670500
-0.019796 -0.180716 0.670500
-0.019743 -0.178957 0.668700
-0.019743 -0.177683 0.668700
-0.019716 -0.176172 0.667800
-0.019663 -0.174429 0.666000
-0.019663 -0.173160 0.666000
-0.019663 -0.171891 0.666000
-0.019716 -0.171084 0.667800
-0.019716 -0.169812 0.667800
-0.019716 -0.168540 0.667800
-0.019743 -0.167493 0.668700
-0.019743 -0.166220 0.668700
-0.019796 -0.165390 0.670500
-0.019796 -0.164113 0.670500
-0.019849 -0.163273 0.672300
-0.019875 -0.162209 0.673200
-0.019875 -0.160927 0.673200
-0.019875 -0.159645 0.673200
-0.019929 -0.158786 0.675000
-0.019929 -0.157500 0.675000
-0.019929 -0.156214 0.675000
-0.019929 -0.154929 0.675000
-0.019929 -0.153643 0.675000
-0.019982 -0.152763 0.676800
-0.019982 -0.151474 0.676800
-0.019982 -0.150185 0.676800
-0.019982 -0.148896 0.676800
-0.019982 -0.147607 0.676800
-0.020008 -0.146512 0.677700
-0.020061 -0.145607 0.679500
-0.020088 -0.144504 0.680400
-0.020141 -0.143587 0.682200
-0.020194 -0.142663 0.684000
-0.020194 -0.141360 0.684000
-0.020194 -0.140057 0.684000
-0.020221 -0.138937 0.684900
-0.020221 -0.137632 0.684900
-0.020274 -0.136686 0.686700
-0.020274 -0.135378 0.686700
-0.020274 -0.134070 0.686700
-0.020274 -0.132762 0.686700
-0.020327 -0.131799 0.688500
-0.020327 -0.130487 0.688500
-0.020327 -0.129176 0.688500
-0.020380 -0.128199 0.690300
-0.020407 -0.127049 0.691200
-0.020460 -0.126060 0.693000
-0.020540 -0.125226 0.695700
-0.020540 -0.123901 0.695700
-0.020540 -0.122576 0.695700
-0.020593 -0.121564 0.697500
-0.020593 -0.120236 0.697500
-0.020593 -0.118907 0.697500
-0.020646 -0.117882 0.699300
-0.020646 -0.116550 0.699300
-0.020646 -0.115218 0.699300
-0.020646 -0.113886 0.699300
-0.020699 -0.112844 0.701100
-0.020699 -0.111508 0.701100
-0.020699 -0.110173 0.701100
-0.020726 -0.108977 0.702000
-0.020779 -0.107916 0.703800
-0.020779 -0.106575 0.703800
-0.020779 -0.105235 0.703800
-0.020832 -0.104160 0.705600
-0.020832 -0.102816 0.705600
-0.020885 -0.101731 0.707400
-0.020885 -0.100383 0.707400
-0.020938 -0.099288 0.709200
-0.020938 -0.097937 0.709200
-0.021018 -0.096954 0.711900
-0.021018 -0.095598 0.711900
-0.021018 -0.094242 0.711900
-0.021071 -0.093121 0.713700
-0.021071 -0.091761 0.713700
-0.021071 -0.090402 0.713700
-0.021124 -0.089267 0.715500
-0.021124 -0.087904 0.715500
-0.021177 -0.086759 0.717300
-0.021204 -0.085500 0.718200
-0.021204 -0.084132 0.718200
-0.021257 -0.082971 0.720000
-0.021257 -0.081600 0.720000
-0.021310 -0.080429 0.721800
-0.021310 -0.079054 0.721800
-0.021310 -0.077679 0.721800
-0.021363 -0.076495 0.723600
-0.021417 -0.075303 0.725400
-0.021417 -0.073922 0.725400
-0.021417 -0.072540 0.725400
-0.021470 -0.071335 0.727200
-0.021523 -0.070123 0.729000
-0.021576 -0.068904 0.730800
-0.021629 -0.067678 0.732600
-0.021629 -0.066283 0.732600
-0.021629 -0.064887 0.732600
-0.021629 -0.063492 0.732600
-0.021629 -0.062097 0.732600
-0.021656 -0.060776 0.733500
-0.021656 -0.059379 0.733500
-0.021709 -0.058124 0.735300
-0.021656 -0.056584 0.733500
-0.021762 -0.055458 0.737100
-0.021762 -0.054054 0.737100
-0.021815 -0.052779 0.738900
-0.021815 -0.051371 0.738900
-0.021868 -0.050085 0.740700
-0.021868 -0.048675 0.740700
-0.021921 -0.047379 0.742500
-0.021921 -0.045964 0.742500
-0.021975 -0.044658 0.744300
-0.022028 -0.043345 0.746100
-0.022081 -0.042025 0.747900
-0.022081 -0.040600 0.747900
-0.022134 -0.039270 0.749700
-0.022187 -0.037933 0.751500
-0.022240 -0.036589 0.753300
-0.022240 -0.035154 0.753300
-0.022293 -0.033800 0.755100
-0.022293 -0.032361 0.755100
-0.022347 -0.030997 0.756900
-0.022400 -0.029625 0.758700
-0.022400 -0.028180 0.758700
-0.022453 -0.026799 0.760500
-0.018916 -0.234171 0.684900
-0.018916 -0.232866 0.684900
-0.018891 -0.231257 0.684000
-0.018966 -0.230862 0.686700
-0.019016 -0.230156 0.688500
-0.018966 -0.228246 0.686700
-0.019016 -0.227533 0.688500
-0.019016 -0.226221 0.688500
-0.019016 -0.224910 0.688500
-0.019065 -0.224183 0.690300
-0.019140 -0.223740 0.693000
-0.019140 -0.222420 0.693000
-0.019090 -0.220526 0.691200
-0.019140 -0.219780 0.693000
-0.019090 -0.217893 0.691200
-0.019065 -0.216294 0.690300
-0.019065 -0.214979 0.690300
-0.019016 -0.213107 0.688500
-0.019016 -0.211796 0.688500
-0.019016 -0.210484 0.688500
-0.018966 -0.208626 0.686700
-0.018916 -0.206775 0.684900
-0.018842 -0.204660 0.682200
-0.018842 -0.203361 0.682200
-0.018792 -0.201528 0.680400
-0.018767 -0.199967 0.679500
-0.018717 -0.198147 0.677700
-0.018693 -0.196594 0.676800
-0.018693 -0.195305 0.676800
-0.018643 -0.193500 0.675000
-0.018643 -0.192214 0.675000
-0.018643 -0.190929 0.675000
-0.018643 -0.189643 0.675000
-0.018593 -0.187855 0.673200
-0.018568 -0.186323 0.672300
-0.018568 -0.185043 0.672300
-0.018568 -0.183762 0.672300
-0.018568 -0.182481 0.672300
-0.018519 -0.180716 0.670500
-0.018519 -0.179439 0.670500
-0.018519 -0.178161 0.670500
-0.018469 -0.176409 0.668700
-0.018444 -0.174900 0.667800
-0.018444 -0.173628 0.667800
-0.018444 -0.172356 0.667800
-0.018444 -0.171084 0.667800
-0.018469 -0.170041 0.668700
-0.018469 -0.168767 0.668700
-0.018469 -0.167493 0.668700
-0.018519 -0.166667 0.670500
-0.018519 -0.165390 0.670500
-0.018519 -0.164113 0.670500
-0.018593 -0.163491 0.673200
-0.018593 -0.162209 0.673200
-0.018593 -0.160927 0.673200
-0.018643 -0.160071 0.675000
-0.018643 -0.158786 0.675000
-0.018643 -0.157500 0.675000
-0.018693 -0.156631 0.676800
-0.018693 -0.155342 0.676800
-0.018693 -0.154053 0.676800
-0.018717 -0.152967 0.677700
-0.018717 -0.151676 0.677700
-0.018767 -0.150784 0.679500
-0.018767 -0.149490 0.679500
